# .PCD v0.7 - Point Cloud Data file format
VERSION 0.7
FIELDS x y z
SIZE 4 4 4
TYPE F F F
COUNT 1 1 1
WIDTH 1550
HEIGHT 1
VIEWPOINT 0 0 0 1 0 0 0
POINTS 1550
DATA ascii
-10.088233 -5.5718036 2.5528419
-0 -0 0
-12.203537 -6.7428813 2.5513785
-0 -0 0
-0 -0 0
-0 -0 0
-0 -0 0
-0 -0 0
-0 -0 0
-0 -0 0
-0 -0 0
-0.79298836 -0.51560622 0.015354384
-0.87052774 -0.47980782 -0.0013878854
-0.83074319 -0.53994846 -0.020062238
-0 -0 -0
-0 -0 -0
-0.96631175 -0.53172177 -0.082156494
-0 -0 -0
-0.99465775 -0.54664111 -0.1265052
-0 -0 -0
-0.98250222 -0.53906798 -0.16668573
-0.87882602 -0.56967419 -0.17601177
-1.0061102 -0.55110747 -0.21427082
-0.89998233 -0.58316517 -0.22130346
-1.0177214 -0.55654424 -0.26119471
-0.89092851 -0.57707775 -0.26053181
-1.0443301 -0.57014859 -0.31569991
-0.92897719 -0.60126263 -0.31667924
-7.2531862 -3.9448202 2.4975119
-7.5967412 -4.9071498 2.5335882
-8.539135 -4.648078 2.537884
-8.7167616 -5.624166 2.4885848
-10.112798 -5.5046639 2.550463
-0 -0 0
-11.322054 -6.1654558 2.3591342
-2.3477495 -1.5113182 0.45522809
-2.6272769 -1.4306909 0.4348225
-0 -0 0
-0 -0 0
-0 -0 0
-0 -0 0
-0 -0 0
-0 -0 0
-0.81381035 -0.52206844 0.015695233
-0 -0 -0
-0.828991 -0.53160274 -0.019940771
-0 -0 -0
-0 -0 -0
-0 -0 -0
-0 -0 -0
-1.0014887 -0.54242098 -0.1269483
-0.90124631 -0.57660657 -0.13971743
-0.97274029 -0.52597243 -0.16447894
-0.89975166 -0.57542902 -0.17949224
-1.0310981 -0.55659729 -0.21886101
-0.91839641 -0.58712733 -0.22494134
-1.0417285 -0.56139678 -0.26646692
-0.89281595 -0.57055432 -0.26005509
-1.0512135 -0.56556171 -0.31672573
-0.91563272 -0.58468539 -0.31090143
-7.2122946 -3.8654258 2.4752178
-7.6518812 -4.8764877 2.5419507
-8.3841734 -4.4972615 2.4835801
-8.8438025 -5.629581 2.5149448
-10.11799 -5.4272795 2.5433259
-0 -0 0
-11.494018 -6.1679626 2.3870349
-0 -0 0
-15.033866 -8.0675297 2.4799123
-2.234237 -1.4178387 0.33287826
-0 -0 0
-0 -0 0
-0 -0 0
-2.1569452 -1.3666782 0.13426872
-0 -0 0
-0 -0 0
-0 -0 -0
-0.83899647 -0.53078234 -0.020102726
-0 -0 -0
-0 -0 -0
-0.9965114 -0.53251368 -0.084162124
-0.76097614 -0.48068002 -0.084131405
-1.0223339 -0.54562467 -0.1291638
-0.92405337 -0.5832386 -0.14269565
-0 -0 -0
-0.89158893 -0.56253028 -0.17717192
-0 -0 -0
-0.93026543 -0.58670551 -0.22696237
-1.0193048 -0.54126817 -0.25987667
-0.90287232 -0.56920886 -0.26196203
-1.0623498 -0.56317538 -0.31903386
-0.94767404 -0.59699154 -0.32053113
-7.2671933 -3.8376369 2.4859304
-7.6816587 -4.8294449 2.5419507
-8.2995472 -4.3865047 2.4504926
-8.9160595 -5.5989985 2.5256755
-10.121754 -5.3495836 2.5359731
-0 -0 0
-11.659477 -6.1649103 2.4134955
-0 -0 0
-15.02797 -7.9459896 2.4708505
-0 -0 0
-18.585566 -9.8229065 2.2799776
-0 -0 0
-0 -0 0
-0 -0 0
-0 -0 0
-0.78283733 -0.48874369 0.014981074
-0 -0 -0
-0.85241556 -0.53197628 -0.020345658
-0 -0 -0
-0 -0 -0
-1.0288793 -0.54172087 -0.086613446
-0 -0 -0
-1.0054307 -0.52870268 -0.12661597
-0.95455092 -0.594329 -0.14683926
-1.0237863 -0.53744286 -0.17198201
-0.9201414 -0.5726819 -0.18214402
-1.0308853 -0.54025185 -0.21739215
-0.92220598 -0.57374358 -0.22413293
-1.0606412 -0.55490232 -0.2695424
-0.91624433 -0.56981277 -0.26482236
-1.0794933 -0.56380576 -0.32313719
-0.95131928 -0.59116548 -0.32053113
-7.3491936 -3.8234558 2.5059085
-7.6825056 -4.7644577 2.5325093
-8.4567528 -4.4034204 2.488884
-8.9320593 -5.5329199 2.5205436
-10.139666 -5.2797112 2.5322964
-9.9605665 -6.1628089 2.3532357
-11.829689 -6.1623292 2.440856
-0 -0 0
-15.00974 -7.8188834 2.4599187
-0 -0 0
-18.821848 -9.8005123 2.3015428
-0 -0 0
-18.778667 -9.7738628 1.513767
-0 -0 0
-18.844984 -9.7958422 0.74539101
-0 -0 0
-0 -0 -0
-0.86332637 -0.53145301 -0.02052786
-0 -0 -0
-0 -0 -0
-4.5731235 -2.3720963 -0.38374364
-0.88642073 -0.54481661 -0.097253673
-0 -0 -0
-0.971699 -0.59676361 -0.14891107
-0 -0 -0
-0.94044667 -0.57734412 -0.18545873
-0 -0 -0
-0.95909798 -0.5885638 -0.23221707
-1.0657603 -0.54927778 -0.26998174
-0.92055124 -0.56468791 -0.26506075
-1.093246 -0.56247789 -0.3262147
-0.93771535 -0.5747664 -0.31475332
-7.4551425 -3.8206348 2.5339932
-7.6795592 -4.6976323 2.5219884
-8.6170568 -4.4198952 2.5280335
-8.9135647 -5.4460692 2.5058472
-10.137991 -5.2000184 2.5238619
-10.209924 -6.2307887 2.40307
-12.028308 -6.1722593 2.4739769
-0 -0 0
-15.017814 -7.7063074 2.4534461
-0 -0 0
-19.110737 -9.8023548 2.3294694
-0 -0 0
-19.1161 -9.8008928 1.5360912
-0 -0 0
-19.099546 -9.7797794 0.7530722
-0 -0 0
-0 -0 -0
-0.89135468 -0.54119331 -0.021114949
-7.8871779 -4.0333591 -0.33566964
-0 -0 -0
-4.5760479 -2.3380928 -0.38277796
-0.8522839 -0.51665717 -0.093158782
-1.0286628 -0.52490753 -0.1287207
-0.97449422 -0.59027636 -0.14878158
-1.0153215 -0.51720661 -0.16948099
-0.95156372 -0.57615978 -0.18695036
-0.99800789 -0.50750977 -0.20912978
-0.96269131 -0.58266783 -0.23221707
-1.0725901 -0.54449445 -0.27086043
-0.94061744 -0.56908333 -0.26982802
-1.1018498 -0.55838078 -0.32775345
-0.95027465 -0.57447302 -0.31777981
-7.4912615 -3.7812884 2.538336
-7.6785574 -4.6325159 2.5122774
-8.7346945 -4.4127502 2.554554
-8.9109993 -5.3696928 2.4958162
-9.9082747 -5.00564 2.458981
-10.187483 -6.1316228 2.3888879
-12.159012 -6.1453724 2.4930573
-0 -0 0
-15.029487 -7.596159 2.4476924
-0 -0 0
-19.366629 -9.7839823 2.3532991
-0 -0 0
-19.370869 -9.7818804 1.551711
-0 -0 0
-19.086916 -9.6259508 0.75023127
-0 -0 0
-0 -0 -0
-0.89465863 -0.53571391 -0.021114949
-2.3132913 -1.1651247 -0.098145023
-0 -0 -0
-0 -0 -0
-0.88620305 -0.52981061 -0.096509151
-1.0407443 -0.52304876 -0.12982845
-0.9746927 -0.58225185 -0.14826363
-0 -0 -0
-0.95254093 -0.56879348 -0.18645313
-1.0134081 -0.50753921 -0.21170029
-0.96624839 -0.57674986 -0.23221707
-1.0593317 -0.52961409 -0.26668662
-0.93158156 -0.55583692 -0.26625258
-1.0992013 -0.5485881 -0.32595822
-0.96781999 -0.57700092 -0.32245708
-7.5340357 -3.7450509 2.5449951
-7.488368 -4.4553318 2.4410605
-8.7130947 -4.3349361 2.5404098
-8.8919506 -5.2841153 2.481353
-9.944046 -4.9473591 2.4602787
-10.17433 -6.0389733 2.3770695
-12.322419 -6.1333294 2.5187979
-0 -0 0
-15.070498 -7.5011516 2.4468296
-0 -0 0
-19.651493 -9.7770042 2.380579
-0 -0 0
-19.666306 -9.7800932 1.5705403
-0 -0 0
-2.182189 -1.0837822 0.085510232
-0 -0 0
-0 -0 -0
-0 -0 -0
-2.4143944 -1.1975311 -0.1021208
-0 -0 -0
-1.1178145 -0.55394602 -0.092927463
-0.89801425 -0.52941954 -0.097439803
-1.0341361 -0.51180387 -0.12860993
-0.97995573 -0.57726681 -0.14852262
-1.0446488 -0.5160991 -0.17330609
-0.96196163 -0.56644088 -0.18761331
-0 -0 -0
-0.99677747 -0.58670753 -0.2386844
-1.0695633 -0.52655125 -0.268444
-0.95590055 -0.56242257 -0.27221167
-1.1025467 -0.54183316 -0.32595822
-0.96554065 -0.5676409 -0.32053113
-7.5783663 -3.7092724 2.5522337
-7.5728712 -4.4429216 2.4596739
-8.7577763 -4.2903314 2.5457137
-8.9032316 -5.2171655 2.4755213
-9.9479122 -4.8733644 2.4537907
-10.325421 -6.0432873 2.403661
-12.499379 -6.1260037 2.5472386
-0 -0 0
-15.071809 -7.3867631 2.4396374
-0 -0 0
-19.874495 -9.7362804 2.4003112
-2.2315056 -1.3024033 0.23014086
-2.0559058 -1.006719 0.16368711
-0 -0 0
-2.1582732 -1.0554448 0.084317714
-0 -0 0
-0 -0 -0
-0.91585344 -0.53324676 -0.021459104
-2.4010446 -1.1726081 -0.10124992
-0 -0 -0
-0 -0 -0
-0.92018312 -0.53490782 -0.099487245
-1.0613792 -0.51720351 -0.13160086
-0.9877665 -0.57373321 -0.14917006
-0.98553282 -0.47939295 -0.16300777
-0.96968335 -0.56300354 -0.18844199
-1.0036434 -0.48733628 -0.20839536
-0.99442929 -0.57713908 -0.23726965
-1.0569721 -0.51231945 -0.26448986
-0.98117477 -0.56921762 -0.27840912
-1.1171614 -0.54053056 -0.32929218
-0.97649133 -0.56604511 -0.32300732
-7.6113305 -3.6676888 2.5557079
-7.6525021 -4.4267483 2.4766688
-8.8196688 -4.2537475 2.5560694
-8.9216042 -5.1546545 2.4717889
-9.9644365 -4.8058715 2.4505465
-10.706218 -6.1782794 2.4834349
-12.645701 -6.1017728 2.5693791
-0 -0 0
-15.091894 -7.282104 2.4356101
-0 -0 0
-19.809393 -9.5541172 2.3853235
-0 -0 0
-2.0988827 -1.0118446 0.16661137
-0 -0 0
-19.80024 -9.532671 0.77124047
-0 -0 0
-0 -0 -0
-0.9295131 -0.53359014 -0.021702036
-8.0270138 -3.8593674 -0.3374871
-0.88257384 -0.50603026 -0.057947516
-0 -0 -0
-0.90357953 -0.51786453 -0.097346738
-0 -0 -0
-0.99126828 -0.56766158 -0.14917006
-0 -0 -0
-0.98766935 -0.56537175 -0.19125949
-1.034995 -0.49473482 -0.21427082
-1.0030521 -0.57394493 -0.23848228
-1.0556934 -0.50372368 -0.26339144
-1.030172 -0.58922422 -0.29128075
-1.1073675 -0.52743119 -0.32544529
-0.99413621 -0.56815249 -0.32768461
-5.4742575 -2.5966249 1.832744
-7.7171602 -4.4011769 2.4888082
-5.4410949 -2.5832217 1.5722858
-8.8423767 -5.0367656 2.4412298
-5.4321265 -2.578964 1.3320022
-10.831697 -6.162406 2.5037231
-5.450254 -2.5887358 1.1041454
-0 -0 0
-1.7636511 -0.83769071 0.28379253
-0 -0 0
-1.6785382 -0.79690516 0.20152651
-0 -0 0
-2.001421 -0.94976944 0.15840919
-0 -0 0
-19.845715 -9.4050074 0.77074945
-0.87183899 -0.49359551 0.016263312
-1.9294722 -0.91397649 -0.0029810213
-0.90492582 -0.51211923 -0.021054216
-8.0613823 -3.8151715 -0.33794147
-1.002128 -0.56643569 -0.065567695
-0 -0 -0
-0 -0 -0
-1.0424829 -0.49225774 -0.12849915
-0.98005354 -0.55328161 -0.14696877
-1.0593396 -0.49931332 -0.17418879
-0.99455529 -0.56123954 -0.19192246
-1.085153 -0.51055473 -0.22400205
-1.015085 -0.57259119 -0.24050333
-1.0490509 -0.4926748 -0.26097503
-1.0422277 -0.58766216 -0.29366443
-1.1044568 -0.51775473 -0.32365012
-1.0110054 -0.56959236 -0.33208674
-5.4519248 -2.545171 1.8200046
-7.7003732 -4.3292036 2.4747806
-5.4533362 -2.5481486 1.5712755
-8.9273796 -5.0128856 2.4561594
-5.4823456 -2.5617037 1.3404367
-11.050588 -6.1974974 2.5454812
-5.462471 -2.5535786 1.1034253
-0 -0 0
-1.7553107 -0.82056713 0.28163496
-0 -0 0
-1.7644588 -0.82446837 0.21123083
-0 -0 0
-1.7812755 -0.83194751 0.14057834
-0 -0 0
-1.7588954 -0.82037324 0.068113565
-0.8661201 -0.48336405 0.016101003
-1.7709959 -0.8256408 -0.0027282981
-0.89844668 -0.50119925 -0.020831525
-1.7863206 -0.83202624 -0.074668981
-0 -0 -0
-1.1645255 -0.54191405 -0.095675923
-0.97945476 -0.54549342 -0.104792
-1.0463848 -0.48627076 -0.12860993
-1.0059577 -0.55979395 -0.15033543
-0 -0 -0
-1.0031511 -0.55800277 -0.19291686
-1.0623968 -0.49190915 -0.21867742
-1.0690802 -0.59443164 -0.25242743
-1.0228304 -0.47272232 -0.25372574
-1.0593959 -0.58880484 -0.29747823
-1.1242884 -0.51866102 -0.3285228
-1.0027144 -0.55684364 -0.32823488
-5.4543929 -2.5056775 1.8156615
-7.7116308 -4.2734718 2.4699247
-5.4530449 -2.5073638 1.5667291
-8.9307451 -4.9429455 2.4486947
-5.4713488 -2.5157802 1.3339486
-11.114149 -6.143805 2.5513906
-5.4708877 -2.5167248 1.1019853
-0 -0 0
-1.7603126 -0.80978125 0.28163496
-0 -0 0
-1.7694844 -0.81362635 0.21123083
-0 -0 0
-1.7691268 -0.81308788 0.1392232
-0 -0 0
-1.767529 -0.81123286 0.06825386
-0.86731756 -0.47707677 0.016068542
-1.7678483 -0.81100589 -0.0027157315
-0.91815096 -0.50482953 -0.021216171
-1.7841249 -0.8177191 -0.074366063
-0 -0 -0
-1.242178 -0.56880367 -0.10176709
-1.0648274 -0.58450931 -0.11354017
-0 -0 -0
-1.0067656 -0.55218047 -0.14994699
-0.96010828 -0.43822342 -0.15697588
-1.0117445 -0.5546816 -0.19391127
-1.0564497 -0.48130572 -0.21684134
-1.0160233 -0.55679679 -0.23908859
-1.0177191 -0.46280286 -0.25174862
-1.0732099 -0.58789241 -0.30033863
-1.135371 -0.51534826 -0.33083093
-1.0600865 -0.58022255 -0.34584346
-5.4583259 -2.4670377 1.8118976
-7.7131996 -4.2126889 2.4621019
-5.4524593 -2.4666786 1.5621828
-8.9028578 -4.8563895 2.432832
-5.4724498 -2.4757226 1.3304883
-11.160246 -6.0801845 2.5533602
-5.473681 -2.4774303 1.0994653
-13.467881 -7.328259 2.4998119
-1.761642 -0.79733276 0.28105959
-0 -0 0
-1.7744434 -0.80275369 0.21123083
-0 -0 0
-1.7713559 -0.8009845 0.13900924
-0 -0 0
-1.7788492 -0.80325127 0.068499371
-0 -0 0
-1.7727911 -0.8001433 -0.0027157315
-0 -0 -0
-1.784554 -0.80470264 -0.074176736
-1.0317014 -0.55834806 -0.066818774
-1.7639055 -0.79465097 -0.14410813
-1.1007961 -0.59549308 -0.11698361
-0 -0 -0
-1.0127516 -0.54740715 -0.15033543
-0 -0 -0
-1.0255405 -0.55408847 -0.1959001
-1.6263008 -0.72890639 -0.33288175
-1.0185587 -0.55008668 -0.23888649
-1.0543796 -0.47168818 -0.26009631
-1.0802153 -0.58314162 -0.30129206
-1.1455723 -0.51152474 -0.33288261
-1.0416265 -0.56184042 -0.33868998
-5.4689875 -2.4315553 1.81045
-7.7160091 -4.1529603 2.4548182
-5.4462757 -2.4237349 1.5561209
-8.8879499 -4.7777295 2.4207015
-5.4759417 -2.4369371 1.3276768
-11.195616 -6.0106645 2.5529664
-5.468111 -2.4345956 1.0953252
-13.654373 -7.3215065 2.526041
-1.7791576 -0.79214364 0.28307334
-17.490583 -9.3706322 2.4961503
-1.7766107 -0.79063815 0.21090735
-0 -0 0
-1.7680351 -0.78645205 0.13836731
-0 -0 0
-1.7782644 -0.78988725 0.06828893
-0 -0 0
-1.7767535 -0.78884482 -0.0027143355
-0.90840191 -0.48504782 -0.02085177
-1.7848907 -0.79171181 -0.073987417
-1.0562506 -0.56328213 -0.068183579
-1.7550724 -0.77775246 -0.1429939
-1.088614 -0.58029705 -0.11530843
-1.7276968 -0.76453906 -0.21058352
-1.0134659 -0.53978437 -0.14994699
-1.6901524 -0.74651444 -0.27481812
-1.0228275 -0.54454136 -0.19473995
-1.6820127 -0.74151629 -0.3433474
-1.0928092 -0.581554 -0.25545898
-1.0652906 -0.46874598 -0.2620734
-1.0803435 -0.57467824 -0.30033863
-1.1389546 -0.5002107 -0.33006155
-1.079861 -0.57393813 -0.34997046
-5.3934741 -2.358453 1.7806281
-7.705617 -4.0865889 2.4434884
-5.4211574 -2.372813 1.544755
-8.8853025 -4.7062631 2.4120703
-5.4764805 -2.3970277 1.3242165
-11.242685 -5.9473577 2.55533
-5.4631228 -2.3923173 1.091365
-13.793287 -7.2873802 2.5434198
-1.7531639 -0.76771551 0.27818283
-17.64076 -9.312233 2.5093806
-1.7832501 -0.78051943 0.211123
-18.682947 -9.8540478 1.8814061
-1.7755688 -0.77678818 0.13858129
-18.659391 -9.8332987 1.109069
-1.7858249 -0.78016132 0.068394154
-0 -0 0
-1.7806438 -0.77752781 -0.0027129389
-0.92197877 -0.4850508 -0.021094704
-1.787883 -0.77994591 -0.073911689
-5.7659698 -3.0296092 -0.37100056
-1.7735244 -0.77294528 -0.14410813
-1.0806949 -0.56758803 -0.11409857
-1.7724519 -0.77137381 -0.21545762
-1.0308073 -0.54092771 -0.15201877
-1.789053 -0.7771135 -0.29011852
-1.0331361 -0.54191989 -0.19606584
-1.6080666 -0.69716418 -0.3273735
-1.0070177 -0.52799565 -0.23464231
-1.0914257 -0.47227377 -0.26778498
-1.0933113 -0.57299757 -0.3029606
-1.1411151 -0.49282953 -0.32980508
-1.1046548 -0.57845122 -0.35684881
-5.3278255 -2.2909081 1.7542807
-7.7049432 -4.0258536 2.4353957
-5.3565159 -2.3054605 1.5222758
-8.8993578 -4.6440082 2.4081047
-5.4031992 -2.3255529 1.303022
-11.252013 -5.8642154 2.5492239
-5.383739 -2.3182909 1.0726446
-13.837742 -7.2026091 2.5434198
-1.7596593 -0.75772661 0.27847052
-17.734537 -9.2230434 2.5146227
-1.7834398 -0.76759779 0.21058388
-18.884476 -9.8127089 1.8956013
-1.7702228 -0.76154298 0.13779673
-18.913473 -9.8193922 1.1205688
-1.7841506 -0.76642787 0.068148635
-0 -0 0
-1.7844623 -0.76619285 -0.0027115429
-0.92848819 -0.48122475 -0.021175681
-1.7880433 -0.76699132 -0.073722363
-5.7746978 -2.9891245 -0.37037507
-1.7626512 -0.75537086 -0.14284533
-1.0735456 -0.55545586 -0.11298178
-1.7780653 -0.76087475 -0.21556841
-1.0182518 -0.52639616 -0.14968799
-1.8001549 -0.76884091 -0.29114833
-1.0329373 -0.53375959 -0.19540289
-1.6086969 -0.6857422 -0.32663906
-1.043304 -0.53888571 -0.24232224
-1.0916097 -0.46442223 -0.26712596
-1.0993955 -0.56761497 -0.30367568
-1.1530143 -0.48959625 -0.33236966
-1.0987847 -0.56681395 -0.35382232
-5.3717575 -2.2708457 1.7641248
-7.7063837 -3.9666023 2.428112
-5.3910561 -2.2812223 1.528085
-8.913847 -4.5822015 2.4043722
-5.3661156 -2.270669 1.2906947
-10.936295 -5.6146116 2.4698436
-5.3960505 -2.2844465 1.0722846
-13.851814 -7.1022563 2.5379486
-1.7542512 -0.74267143 0.27688828
-17.827 -9.1325998 2.5197401
-5.3945622 -2.282706 0.63530988
-19.171316 -9.8128328 1.9183137
-5.4017544 -2.2846379 0.41938135
-19.151188 -9.794096 1.1310709
-1.7860578 -0.75429964 0.068043411
-0 -0 0
-1.8112407 -0.76456255 -0.002745053
-0.92340934 -0.47142717 -0.020993482
-5.3928795 -2.2742295 -0.22177292
-5.860527 -2.988101 -0.37469694
-1.8030943 -0.75964117 -0.14574236
-1.09024 -0.55563986 -0.11437777
-1.7973579 -0.75611651 -0.21734081
-0.99318677 -0.50574011 -0.14554439
-1.8294623 -0.76811951 -0.29512054
-1.0370718 -0.52785891 -0.19556864
-1.5648235 -0.65572333 -0.31690782
-1.0570656 -0.53780323 -0.2447475
-1.071038 -0.44792882 -0.26141438
-1.1097829 -0.56438041 -0.30558261
-1.1292375 -0.47134301 -0.32467592
-1.1039562 -0.56093228 -0.35437262
-5.4359717 -2.2587774 1.7806281
-7.6953635 -3.9013896 2.4170518
-5.4022717 -2.2469859 1.5273273
-8.955677 -4.5344496 2.4081047
-5.3952718 -2.2440743 1.2943712
-11.004662 -5.5646567 2.4775257
-5.3954358 -2.2452471 1.0694046
-13.868703 -7.0037823 2.5331213
-1.7423295 -0.72504991 0.2742992
-18.45759 -9.3131151 2.6007442
-5.3506374 -2.2255094 0.62851691
-19.362799 -9.7613754 1.9314443
-5.40554 -2.2472386 0.4185968
-19.422297 -9.7828693 1.1435157
-2.813355 -1.1678654 0.10690532
-0 -0 0
-0 -0 -0
-0 -0 -0
-5.3845773 -2.2319133 -0.22086416
-2.293864 -1.1518912 -0.14620516
-5.1025286 -2.1129169 -0.41137671
-1.0722723 -0.53822005 -0.11214419
-3.1998169 -1.3230568 -0.38594055
-0.98652118 -0.4947468 -0.14412002
-2.0645516 -0.85196131 -0.33219454
-1.0314752 -0.51706624 -0.19391127
-1.6578929 -0.68279469 -0.33490142
-1.0524652 -0.52735841 -0.24292855
-1.0214314 -0.41983753 -0.24867319
-1.1158301 -0.55886507 -0.30629772
-1.0695117 -0.43872726 -0.30672389
-1.1116761 -0.55629921 -0.3557483
-5.4506154 -2.2257423 1.7809176
-7.6821127 -3.8356025 2.4054523
-5.4455137 -2.225877 1.5356623
-9.3061838 -4.640399 2.4946499
-5.4604535 -2.2319839 1.3066987
-11.162341 -5.5586505 2.5052989
-5.4792166 -2.2407694 1.0832648
-13.8743 -6.9000945 2.5263629
-1.7256782 -0.7057299 0.27099094
-18.358006 -9.1219807 2.5787771
-5.4957891 -2.2464273 0.64393592
-2.1206651 -1.0528226 0.21088852
-0 -0 0
-0 -0 0
-5.4678955 -2.230572 0.20725182
-1.9030234 -0.94270343 0.034474324
-0 -0 -0
-0 -0 -0
-5.4666543 -2.2267275 -0.22366615
-2.2400327 -1.1077013 -0.1423382
-5.1283288 -2.0868309 -0.41241667
-0 -0 -0
-3.1765692 -1.2906784 -0.38217419
-0 -0 -0
-2.3163126 -0.93926221 -0.37176952
-0 -0 -0
-1.7121679 -0.6928907 -0.34499988
-1.0618291 -0.52392417 -0.2443433
-1.0049921 -0.40589014 -0.24405998
-1.1235932 -0.55415583 -0.30748951
-1.0479786 -0.42240053 -0.2997995
-1.1176556 -0.55074245 -0.35657367
-5.4526215 -2.1876228 1.7771537
-7.725378 -3.7981651 2.4116566
-5.442009 -2.1855707 1.5308633
-9.4392262 -4.6346393 2.5226429
-5.4658923 -2.1951625 1.3047522
-11.283386 -5.5327873 2.5247991
-5.4773464 -2.2008729 1.0802048
-13.880921 -6.797471 2.5199263
-1.72263 -0.69217634 0.26984021
-18.386894 -8.9960842 2.5750325
-5.4854832 -2.2030303 0.64113247
-2.1235056 -1.0380409 0.21053365
-5.4725132 -2.1967125 0.4216637
-1.9642283 -0.95933139 0.11494494
-5.4935384 -2.201813 0.20770778
-0 -0 0
-0 -0 -0
-0 -0 -0
-5.4857807 -2.1953707 -0.22389333
-2.2054961 -1.0738316 -0.13972232
-5.1178875 -2.0460701 -0.41055965
-0 -0 -0
-3.183506 -1.2707946 -0.38206342
-0 -0 -0
-2.447001 -0.97481591 -0.39177766
-1.0457253 -0.50824928 -0.19540289
-1.7017717 -0.67656147 -0.34206215
-1.0694284 -0.51953882 -0.24535382
-1.0700334 -0.42454082 -0.25921762
-1.1226043 -0.54513001 -0.30629772
-1.0487534 -0.41525066 -0.29928657
-1.1192839 -0.54303497 -0.3560234
-5.4623795 -2.1527212 1.7759956
-7.8274093 -3.7888696 2.4362047
-5.4355159 -2.1443264 1.5253067
-9.1899576 -4.4424758 2.4486947
-5.4629107 -2.1551337 1.3008595
-11.356853 -5.4826303 2.533663
-5.4733629 -2.1603613 1.0767847
-1.7105132 -0.82466269 0.30960014
-1.7286859 -0.68232018 0.27012792
-18.599964 -8.9593058 2.5971246
-5.4785519 -2.1613042 0.63876033
-19.682798 -9.4724264 1.9456396
-5.4840331 -2.1623607 0.42152107
-19.770975 -9.5063639 1.1535451
-5.4976459 -2.1644027 0.20735703
-0 -0 0
-0 -0 -0
-12.934381 -6.2080503 -0.29050767
-5.4786878 -2.1536264 -0.22306031
-5.7898459 -2.7751942 -0.36571193
-5.1043549 -2.0044224 -0.40847969
-0 -0 -0
-2.9007101 -1.1373234 -0.34728003
-0.99009436 -0.47393557 -0.14334309
-2.4151704 -0.94500613 -0.38574582
-1.0675056 -0.51076156 -0.19888335
-1.6967343 -0.66253144 -0.34022605
-1.087616 -0.52015036 -0.24878956
-1.0389851 -0.40486145 -0.2510896
-1.1329376 -0.54158247 -0.30820462
-1.0215538 -0.3972477 -0.29082346
-1.126065 -0.53781432 -0.35712397
-5.4558477 -2.1115637 1.7696259
-5.4356375 -2.5900826 1.6868109
-5.4377437 -2.1067398 1.5222758
-5.4071217 -2.5730219 1.4365115
-5.4532714 -2.1127555 1.2954526
-5.4246173 -2.5778646 1.2066562
-5.4700065 -2.1203372 1.0735446
-1.7182159 -0.8154211 0.31008288
-1.7245355 -0.66848123 0.26883337
-1.7670219 -0.8378275 0.2460079
-5.4731693 -2.1204646 0.63660377
-1.801224 -0.85327435 0.17752965
-5.4878964 -2.1250687 0.42080781
-19.848791 -9.3942709 1.1547005
-5.5052299 -2.1284666 0.2071466
-1.7564328 -0.83017993 0.031536542
-0 -0 -0
-5.4438167 -2.5718639 -0.121912
-5.4535775 -2.1052148 -0.22150788
-5.7300158 -2.7034061 -0.36087823
-5.0579391 -1.9504603 -0.40379992
-0 -0 -0
-0 -0 -0
-0 -0 -0
-2.4772453 -0.95180917 -0.39472005
-0 -0 -0
-1.6961784 -0.65034837 -0.33930802
-1.0934454 -0.51471847 -0.24939588
-1.0414498 -0.39847875 -0.2510896
-1.123058 -0.5284186 -0.30462918
-0.99959165 -0.3816632 -0.2838991
-1.131084 -0.53171277 -0.35767421
-5.4454379 -2.0692074 1.7620981
-5.4566584 -2.5591347 1.6884294
-5.4451423 -2.0712707 1.5207603
-5.4571514 -2.555881 1.4456093
-5.4451442 -2.0712714 1.2904785
-5.4501014 -2.5491004 1.208823
-5.4599299 -2.0779867 1.0690445
-1.7205044 -0.80360997 0.30960014
-1.7212057 -0.65507114 0.26768264
-1.766735 -0.82445216 0.24525903
-5.4805021 -2.0847211 0.63595682
-1.7558709 -0.81863612 0.17256129
-5.4943056 -2.0888743 0.42030856
-1.7959809 -0.83657348 0.10418034
-5.4957628 -2.0861354 0.20630483
-1.7596804 -0.81854361 0.03150408
-0 -0 -0
-1.7705735 -0.82323486 -0.039537385
-5.4645233 -2.0710044 -0.22143213
-1.7920446 -0.83207703 -0.11253987
-5.0698118 -1.9193888 -0.40379992
-0 -0 -0
-3.1849759 -1.2038991 -0.37951559
-1.042614 -0.48344007 -0.15007646
-2.5071013 -0.94566733 -0.39854515
-1.0906932 -0.50550222 -0.20203236
-1.692777 -0.63715833 -0.33783916
-1.0832535 -0.5018245 -0.24636433
-1.0201302 -0.38316232 -0.24537805
-1.1218727 -0.51947725 -0.30343732
-1.0127757 -0.37959337 -0.28697661
-1.1360703 -0.52556992 -0.35822448
-5.4490633 -2.0324109 1.7592026
-5.4521489 -2.5163243 1.6822249
-5.4477773 -2.0340979 1.5179819
-5.4630165 -2.5178711 1.4430432
-5.4486041 -2.0344064 1.2883158
-5.4567337 -2.511512 1.2068533
-5.4476981 -2.0351517 1.0641844
-1.711951 -0.78685528 0.30718642
-1.7149955 -0.64068818 0.26610044
-1.7735637 -0.81442422 0.24550866
-5.4838772 -2.0475767 0.63487864
-1.7563343 -0.80577022 0.17211768
-5.489264 -2.0484965 0.41895342
-1.7783852 -0.81513542 0.10286758
-5.4925389 -2.046443 0.20570856
-1.7646698 -0.80773103 0.03150408
-5.6124768 -2.0900145 -0.0083622197
-1.7674091 -0.80861175 -0.039355185
-5.4733815 -2.0360422 -0.22128068
-1.802565 -0.82355493 -0.11288108
-5.1020589 -1.8958867 -0.40543413
-0 -0 -0
-3.1923029 -1.1843338 -0.37951559
-0 -0 -0
-2.4034002 -0.88974524 -0.38118511
-1.1494051 -0.52416998 -0.21230797
-1.699421 -0.62778157 -0.33838999
-1.0943325 -0.49882418 -0.24818325
-0.99500096 -0.36677316 -0.23878774
-1.0976422 -0.50010145 -0.29604807
-0.96791458 -0.35602131 -0.27364078
-1.1357737 -0.51699603 -0.35712397
-5.4407578 -1.9913712 1.7525434
-5.4560885 -2.4776473 1.6787181
-5.4410772 -1.9936421 1.5126778
-5.4615369 -2.4766729 1.438611
-5.454567 -1.9985849 1.2868019
-5.4648967 -2.4747474 1.2052774
-5.4259119 -1.9891595 1.0575243
-1.7167469 -0.77633613 0.30718642
-1.7216817 -0.63117498 0.26653194
-1.7694857 -0.79944146 0.24426052
-5.4786015 -2.0073912 0.6328299
-1.7648768 -0.79661751 0.17247257
-5.4923639 -2.0113466 0.41824019
-1.7778913 -0.80174494 0.10255252
-5.504992 -2.0127027 0.20570856
-1.7768862 -0.80017245 0.031633928
-5.4749146 -2.0006227 -0.0081388177
-1.766867 -0.7952897 -0.039233718
-5.47263 -1.9976227 -0.22075059
-1.7957462 -0.80715811 -0.11214181
-5.108911 -1.8628372 -0.40506271
-0 -0 -0
-3.2088487 -1.1681236 -0.38062334
-0 -0 -0
-2.498064 -0.90740067 -0.39530852
-1.1957886 -0.53648394 -0.22026333
-1.6930753 -0.61365765 -0.33637029
-1.0839683 -0.48608911 -0.2451517
-0.98714119 -0.35701132 -0.23637132
-1.1042349 -0.49494591 -0.29700151
-0.94644248 -0.34154519 -0.26697287
-1.1362922 -0.50883853 -0.35629857
-5.5672827 -1.9990301 1.789314
-5.4685507 -2.4429445 1.6779088
-5.4932714 -1.9746201 1.5237912
-5.4650855 -2.4379647 1.4355785
-5.5126667 -1.9815919 1.2976154
-5.4799786 -2.441169 1.2052774
-5.4667087 -1.9661493 1.0631044
-1.7151657 -0.76297975 0.30606002
-1.7143477 -0.61658007 0.26480588
-1.7743577 -0.78856903 0.24426052
-5.5441422 -1.9929062 0.63897598
-1.7815661 -0.79102808 0.17362595
-5.5308857 -1.987051 0.42023724
-1.789167 -0.7936554 0.10292009
-5.5426373 -1.9879968 0.20665556
-1.774449 -0.78601497 0.03150408
-5.5492158 -1.9892633 -0.0082309712
-1.7936544 -0.79414779 -0.039719585
-5.5365272 -1.9825341 -0.22283313
-1.8015782 -0.7965281 -0.11219867
-5.0301032 -1.7992117 -0.39793161
-1.7667522 -0.78076202 -0.18054749
-3.2683694 -1.1671294 -0.38682675
-1.7216872 -0.76012868 -0.24576801
-2.4160013 -0.86084884 -0.38147935
-1.4976945 -0.66092306 -0.27512199
-1.6912514 -0.60128188 -0.33526865
-1.1406945 -0.50314337 -0.25727791
-0.98379654 -0.34899065 -0.23505327
-1.107251 -0.48816115 -0.29700151
-0.93029714 -0.32928133 -0.26184371
-1.1376333 -0.50108176 -0.3557483
-5.6498642 -1.9896312 1.8118976
-5.4728584 -2.4046957 1.6746716
-5.6184373 -1.9807688 1.5551106
-5.4656944 -2.3981345 1.431846
-5.6103549 -1.9779193 1.3177284
-5.4786901 -2.4004164 1.2017319
-5.5454602 -1.9561291 1.0760647
-1.7143898 -0.75006771 0.30509454
-1.7078331 -0.60242826 0.26322368
-1.7755263 -0.77607745 0.24376126
-5.6134605 -1.9790142 0.64555335
-1.7790837 -0.77689284 0.17291617
-5.6182346 -1.9795951 0.42594311
-1.8004104 -0.78545761 0.10328767
-5.6103539 -1.9735165 0.20872492
-1.7966551 -0.7826997 0.031812467
-5.6179209 -1.9750764 -0.0083147464
-1.7929934 -0.78073227 -0.039598119
-5.6023293 -1.9673979 -0.22499141
-1.8091784 -0.78665316 -0.11236928
-4.9723539 -1.7442169 -0.39250898
-1.7614651 -0.76554132 -0.17952377
-3.2970431 -1.1546081 -0.38937458
-1.7545148 -0.76179266 -0.24978215
-2.6602805 -0.92953247 -0.4191418
-1.745073 -0.75733113 -0.31970501
-1.6782012 -0.5850684 -0.33196369
-1.1221968 -0.48678106 -0.25242743
-0.98223376 -0.3416656 -0.23417458
-1.1013153 -0.47749478 -0.29461786
-0.94143128 -0.32673603 -0.26440829
-1.1274534 -0.48835999 -0.3516213
-5.6845846 -1.9627366 1.819136
-5.3858571 -2.327147 1.6436492
-5.6570053 -1.9554245 1.5624353
-5.4133425 -2.33566 1.4143503
-5.6934376 -1.9680178 1.3343811
-5.3753638 -2.3159359 1.1759285
-1.6631172 -0.57520509 0.32202739
-1.7126133 -0.73680389 0.30396813
-1.7021449 -0.58870322 0.2617853
-5.4209809 -2.329983 0.74226743
-5.6799951 -1.9633713 0.65180725
-1.7655122 -0.75810194 0.17114177
-5.6868424 -1.9646269 0.43022248
-1.8079492 -0.77557677 0.1034452
-5.6847124 -1.9605601 0.2110398
-1.7949901 -0.76890498 0.031698849
-5.694222 -1.9627277 -0.008409692
-1.7913165 -0.7669614 -0.039456408
-5.6974421 -1.9616128 -0.22832349
-1.8047911 -0.77161264 -0.1118006
-4.9424124 -1.6997287 -0.38931483
-1.7890184 -0.76449996 -0.18185042
-3.3228655 -1.1408105 -0.39159006
-1.7591561 -0.7510128 -0.24978215
-2.4404194 -0.83594388 -0.38368613
-1.7796195 -0.75938183 -0.3251743
-1.5329313 -0.52389646 -0.30258638
-1.0873268 -0.46374914 -0.24393907
-0.98061812 -0.33437285 -0.23329586
-1.0693823 -0.45587516 -0.28532165
-0.93335289 -0.31752908 -0.26158726
-1.1162763 -0.47540554 -0.34721914
-5.6421218 -1.9094098 1.801764
-5.3823094 -2.286526 1.638254
-5.7018876 -1.9318545 1.571528
-5.4078779 -2.2940462 1.4092183
-5.6952348 -1.9296004 1.3320022
-5.3795424 -2.2787032 1.1737617
-1.6563678 -0.56151563 0.32004735
-1.7080121 -0.72243685 0.30235896
-1.701039 -0.57665938 0.26106611
-5.4306054 -2.2947454 0.74164331
-5.6834612 -1.9256114 0.65083683
-5.3902264 -2.2754657 0.52114397
-5.7195749 -1.9367342 0.43179163
-5.4334211 -2.291466 0.31007302
-5.6559253 -1.9118811 0.20953164
-1.7969097 -0.7567125 0.031650156
-5.6796308 -1.9187899 -0.0083705969
-1.7876953 -0.75246483 -0.039274208
-5.6809664 -1.917032 -0.22718756
-5.4137487 -2.275383 -0.33449194
-4.9196739 -1.6582224 -0.38671494
-1.802855 -0.75736457 -0.18278107
-3.3222673 -1.1178647 -0.39070389
-1.7536736 -0.73598373 -0.24835777
-2.786823 -0.93553501 -0.43723741
-1.7624198 -0.73929262 -0.32119662
-1.1325134 -0.37930462 -0.223084
-1.0847328 -0.45479661 -0.24272646
-0.97987545 -0.32742205 -0.23263682
-1.0712637 -0.44892964 -0.28508332
-0.92428023 -0.30812794 -0.25850976
-1.1209459 -0.46928978 -0.34776941
-5.8899469 -1.9530826 1.8770425
-5.382021 -2.2475207 1.6339378
-5.8954563 -1.957194 1.621538
-5.3976192 -2.2507162 1.4029199
-5.9043341 -1.9601413 1.3780675
-5.4413929 -2.2656252 1.1842012
-1.6532474 -0.54917115 0.31878731
-1.7215261 -0.71573204 0.30396813
-1.7580765 -0.58399302 0.26926488
-5.4225926 -2.2522469 0.73864776
-5.8404737 -1.9389405 0.66744196
-5.4013271 -2.241204 0.52087784
-5.8127675 -1.9286163 0.43792543
-2.5248902 -1.0466344 0.14372057
-5.8402133 -1.9343287 0.21591507
-5.4535217 -2.2572849 0.095810711
-5.5640855 -1.8417951 -0.008183497
-0 -0 -0
-5.6537223 -1.8692768 -0.2256351
-5.42484 -2.2409785 -0.33432132
-4.9449067 -1.6330081 -0.38790345
-4.0576005 -1.6753486 -0.41032675
-3.3441658 -1.1024371 -0.39247629
-2.6014848 -1.0730681 -0.36748663
-2.6036499 -0.85630405 -0.40766653
-1.8599188 -0.76680499 -0.33810171
-1.1105353 -0.36438054 -0.21831019
-1.0793533 -0.44477406 -0.24090752
-0.99948221 -0.32716995 -0.23681067
-1.0111387 -0.41645807 -0.26839784
-0.92523474 -0.30215082 -0.25825331
-1.1158025 -0.45911056 -0.34529319
-5.9646344 -1.9373078 1.8970205
-5.4545045 -2.2385845 1.651742
-5.9202371 -1.9251724 1.6250741
-5.4842105 -2.2474217 1.4218152
-5.9524608 -1.9356512 1.386502
-5.4842281 -2.244076 1.1905044
-1.6481674 -0.53627747 0.31716728
-1.7167488 -0.70142251 0.30235896
-1.8284405 -0.5949344 0.27947739
-5.4418216 -2.2211819 0.73939669
-5.960041 -1.9381161 0.67973417
-5.5007534 -2.2429962 0.52912879
-6.04457 -1.9644372 0.45447245
-5.4426351 -2.2170825 0.30902281
-6.0116754 -1.9502672 0.22180749
-5.4857931 -2.2313147 0.096135326
-5.3051267 -1.7200301 -0.0077869585
-0 -0 -0
-5.378932 -1.7418846 -0.21423787
-5.4838171 -2.2260504 -0.33710784
-5.0373821 -1.6293364 -0.39436603
-4.0788751 -1.654912 -0.4114435
-3.3224943 -1.0727361 -0.38915303
-5.4531331 -2.2102697 -0.76838118
-2.5015259 -0.80574149 -0.39089495
-0 -0 -0
-1.1099426 -0.35665745 -0.21775939
-1.0775232 -0.43630505 -0.239897
-1.017264 -0.3260937 -0.24054515
-1.0055728 -0.40696698 -0.26625258
-0.93627751 -0.29941207 -0.26081789
-1.0241194 -0.41405699 -0.31612897
-8.0406055 -2.557148 2.5522337
-5.4609933 -2.2021933 1.6495839
-8.9587564 -2.8525908 2.4542811
-5.4690323 -2.2021065 1.4143503
-11.069774 -3.5247676 2.5733874
-5.4815211 -2.2038004 1.186959
-1.6420544 -0.52316827 0.31536725
-1.726516 -0.69308168 0.30332446
-1.8876877 -0.60142851 0.28796384
-1.8933483 -0.75928646 0.25661707
-19.762711 -6.2927175 2.2494628
-5.5014682 -2.2040162 0.52788675
-19.756845 -6.2870526 1.4825274
-5.4848776 -2.195148 0.31065065
-19.85269 -6.3061066 0.73104578
-5.5012379 -2.1983545 0.096167788
-5.3365498 -1.6941026 -0.0078176772
-0 -0 -0
-5.3838034 -1.7070351 -0.21401069
-5.4880986 -2.1886621 -0.33653915
-5.050137 -1.5993001 -0.39458889
-5.4725928 -2.1813712 -0.55066985
-3.3204851 -1.0496335 -0.38815606
-2.6780221 -1.0663743 -0.37642127
-2.7441413 -0.86533964 -0.42796895
-5.4124002 -2.1540949 -0.97900331
-1.1486802 -0.36134425 -0.22492008
-1.0801802 -0.42968526 -0.239897
-1.0062143 -0.31575641 -0.2374697
-1.0071485 -0.40043041 -0.26601419
-0.92887288 -0.29077402 -0.25825331
-0.97124314 -0.3857623 -0.29907066
-8.0753365 -2.5137377 2.5583138
-5.4654508 -2.1650975 1.6468863
-9.2532167 -2.8839386 2.5300541
-5.4498882 -2.155632 1.4059525
-11.093059 -3.4573596 2.5738201
-5.4712315 -2.1607616 1.1818377
-1.635843 -0.51015443 0.31356719
-1.7316543 -0.68283695 0.30348536
-1.9980965 -0.62312686 0.30421752
-1.9173576 -0.7552914 0.25923818
-19.767731 -6.160984 2.2456889
-5.5046926 -2.1662061 0.52691078
-19.77886 -6.1606655 1.4813149
-5.5028906 -2.1632788 0.31091321
-5.8977323 -1.8336226 0.21675685
-5.4988008 -2.1583476 0.095891863
-5.8166857 -1.8073117 -0.0085046375
-5.4373465 -2.133131 -0.11826801
-5.7091227 -1.7717055 -0.22650599
-5.4874806 -2.1494844 -0.33568615
-5.0427094 -1.5629687 -0.39325178
-5.1085296 -2.0000184 -0.51279211
-3.3268631 -1.0292397 -0.38815606
-2.7149892 -1.0618409 -0.38069439
-2.824065 -0.87152803 -0.43959132
-5.4448042 -2.1283846 -0.9824838
-1.1536943 -0.35515693 -0.22547092
-1.0773231 -0.42091092 -0.2386844
-1.0016046 -0.30757177 -0.23593196
-0.9905889 -0.38682455 -0.26100853
-0.93433619 -0.28620142 -0.25927913
-0.96105254 -0.37490404 -0.2952188
-7.5384769 -2.2959795 2.3837254
-5.4660683 -2.1266332 1.6431096
-9.3938303 -2.8646445 2.5636468
-5.4593868 -2.120743 1.4050193
-11.159823 -3.4031832 2.5844173
-5.4542227 -2.1154509 1.1753376
-1.6248299 -0.49580115 0.31086713
-1.7339708 -0.67148602 0.30316353
-2.0586734 -0.62818432 0.31284782
-1.9561938 -0.7567575 0.26385626
-19.783289 -6.0329056 2.2432089
-5.4965115 -2.124131 0.52487022
-19.797207 -6.0333734 1.4798883
-5.5058126 -2.1255169 0.31033558
-19.80237 -6.0236173 0.72641605
-5.4942141 -2.1177344 0.095583476
-5.9070778 -1.795728 -0.0086205276
-5.4951143 -2.1169798 -0.11923974
-5.9216409 -1.7978973 -0.23449543
-5.486589 -2.1103971 -0.33483315
-5.0436158 -1.5293934 -0.39258325
-5.1160583 -1.9668489 -0.51232678
-3.3255057 -1.0065038 -0.38726985
-2.617779 -1.0053463 -0.36619174
-2.8284125 -0.85389763 -0.43944421
-2.2786705 -0.87465692 -0.41019693
-1.1407918 -0.34353617 -0.22253318
-1.0762279 -0.41288948 -0.23787597
-1.0072104 -0.3025429 -0.23681067
-0.98931664 -0.37934834 -0.26005509
-0.94163013 -0.28212753 -0.26081789
-0.9678238 -0.37071955 -0.29659447
-7.4661927 -2.2239952 2.3565092
-5.4538279 -2.0834324 1.6355563
-9.4297743 -2.8124819 2.5686982
-5.466845 -2.0851257 1.4036196
-10.875486 -3.2436736 2.5139134
-5.4469428 -2.0742683 1.1710042
-1.6165304 -0.48244631 0.30870709
-1.728833 -0.65732634 0.30155438
-2.0890408 -0.62346488 0.31687528
-1.9756409 -0.75037694 0.26585329
-19.733238 -5.8855467 2.2333968
-5.483366 -2.0804715 0.52238607
-19.795618 -5.9003897 1.4770355
-5.5047441 -2.086385 0.30954793
-19.790108 -5.887466 0.72462732
-5.4940128 -2.0790286 0.095356248
-5.9649529 -1.7734131 -0.0086889453
-5.4874272 -2.0754416 -0.11879436
-6.0264397 -1.789404 -0.23820616
-5.4536686 -2.0594101 -0.33204666
-3.5814917 -1.0620762 -0.27826244
-3.4960034 -1.319461 -0.34927565
-3.3106534 -0.97987467 -0.3848328
-0 -0 -0
-2.7890124 -0.82336408 -0.4325296
-5.3837671 -2.0287204 -0.96690458
-1.1042165 -0.32514566 -0.21500523
-1.0759915 -0.40524253 -0.23726965
-1.0034314 -0.29470757 -0.23549262
-0.99617022 -0.37498152 -0.26124692
-0.937778 -0.27471414 -0.25927913
-0.95298231 -0.35834488 -0.2913669
-7.5201344 -2.1899168 2.3692489
-5.4394603 -2.0397861 1.6274636
-9.3428183 -2.7242336 2.5404098
-5.4686079 -2.047451 1.4008203
-10.852069 -3.16431 2.5039651
-5.4531393 -2.0384047 1.1696253
-1.6109617 -0.47003871 0.30708706
-1.7272856 -0.64463544 0.30058891
-2.1735759 -0.63419563 0.3291015
-1.9718409 -0.73512113 0.26472998
-19.802385 -5.7740951 2.2371707
-5.4792261 -2.04053 0.52078909
-19.779737 -5.7637463 1.473184
-5.4874916 -2.0414271 0.30786762
-19.835453 -5.7687159 0.72497797
-5.4944811 -2.0407529 0.095145248
-14.064984 -4.0878363 -0.020451063
-5.4981837 -2.0410364 -0.11875387
-3.3866878 -0.98302245 -0.13362415
-5.457777 -2.0227857 -0.33153486
-3.340827 -0.96844655 -0.25909752
-3.1837876 -1.1793575 -0.31735408
-3.2688689 -0.94573212 -0.37929407
-2.982373 -1.1035646 -0.41526768
-2.8358274 -0.81830168 -0.43900287
-5.3637409 -1.9836756 -0.9611038
-1.1213052 -0.32271418 -0.21794298
-1.0766206 -0.39795366 -0.23686545
-1.0042832 -0.28827593 -0.23527296
-0.99754125 -0.36852553 -0.26100853
-0.95338428 -0.27294528 -0.26312599
-0.98763329 -0.36447343 -0.30127174
-7.7543783 -2.2066066 2.4387367
-5.4338002 -1.9997203 1.6220684
-9.2058191 -2.6231065 2.4987347
-5.4619002 -2.006815 1.3959216
-11.044988 -3.1471593 2.5439749
-5.4609418 -2.0032182 1.1686404
-1.6090856 -0.45879659 0.30618703
-1.7228676 -0.63097018 0.29914066
-2.1897981 -0.62437445 0.33097142
-2.0126538 -0.73630267 0.26959771
-19.783899 -5.6372252 2.2311325
-5.4869657 -2.0051622 0.52034551
-19.739904 -5.6209645 1.4676208
-5.4858432 -2.0025816 0.30707994
-19.78492 -5.6225853 0.72185647
-5.4787169 -1.9967297 0.094658315
-14.042666 -3.9880719 -0.020382646
-5.5002708 -2.0034978 -0.11853118
-3.4272647 -0.9720394 -0.13498726
-5.4972954 -1.9991542 -0.333184
-3.3313544 -0.9435811 -0.257909
-3.2302661 -1.1740849 -0.32126284
-3.2879994 -0.92944169 -0.38084489
-2.9872239 -1.0845675 -0.41500869
-2.8312747 -0.79820204 -0.43753168
-5.3572707 -1.9439992 -0.95778912
-1.1308347 -0.31795648 -0.21941185
-1.0652318 -0.38633153 -0.23383389
-1.0088511 -0.28289855 -0.23593196
-0.97695762 -0.35412386 -0.25504944
-0.95969534 -0.26839191 -0.26440829
-0.92838091 -0.33614936 -0.28256264
-7.9328475 -2.2048664 2.4905629
-5.5057445 -1.9879246 1.6398726
-9.3028374 -2.5891418 2.5207088
-5.5180211 -1.9890919 1.4071187
-1.6535469 -0.46021095 0.38020131
-5.5515423 -1.9978915 1.1853831
-1.6023945 -0.44627568 0.304387
-1.7202049 -0.61805099 0.29801428
-2.1945412 -0.61119181 0.33111525
-2.0283403 -0.72796136 0.27109548
-19.780764 -5.5053315 2.2269273
-5.5751133 -1.9986843 0.5275318
-19.77306 -5.4994693 1.4675494
-5.5760603 -1.9968275 0.31143829
-19.811344 -5.4989433 0.72157586
-5.5652442 -1.9896672 0.095940553
-14.066873 -3.9018326 -0.020382646
-5.5614176 -1.9872044 -0.11958389
-3.4745746 -0.96246243 -0.13661546
-5.5320268 -1.9734366 -0.3345488
-3.3140142 -0.91674149 -0.25612622
-3.3527634 -1.1953697 -0.33270994
-3.3434572 -0.92300189 -0.3866052
-3.1918538 -1.1367445 -0.44246009
-2.8303974 -0.7792393 -0.43664896
-0 -0 -0
-2.0674133 -0.5676291 -0.40044954
-1.0749639 -0.38241413 -0.23545073
-1.0077453 -0.27593014 -0.23527296
-0.98551744 -0.35040015 -0.25671798
-0.95479715 -0.26071605 -0.26261309
-0.96032286 -0.34106466 -0.29164207
-8.0875626 -2.1945004 2.5348616
-5.6022534 -1.9839995 1.6649603
-9.4912882 -2.5789483 2.5674355
-5.5952144 -1.9782103 1.4236814
-1.6827204 -0.45722443 0.38625684
-5.6247144 -1.9853274 1.1983833
-1.6070009 -0.43695134 0.30474699
-1.7062783 -0.60125202 0.29495689
-2.1371348 -0.5810973 0.32190961
-2.058038 -0.72439629 0.27446544
-19.756607 -5.3682141 2.2204576
-5.6408334 -1.98327 0.5325889
-19.785255 -5.3722906 1.4659803
-5.625896 -1.9758118 0.3135387
-19.822525 -5.3712678 0.72076917
-5.6518888 -1.9816169 0.09722279
-13.940937 -3.7749345 -0.020166228
-5.6376677 -1.9755259 -0.12096051
-3.3270371 -0.89965051 -0.13059498
-5.6109405 -1.9628623 -0.33858639
-3.3099492 -0.89379013 -0.2553834
-3.3750727 -1.1800327 -0.33419898
-3.2780459 -0.88333398 -0.37840784
-3.2745955 -1.1436201 -0.45294863
-2.7873638 -0.74902314 -0.42929301
-0 -0 -0
-1.1251564 -0.30151108 -0.21757576
-1.0726666 -0.37419817 -0.23444022
-1.0028217 -0.26797849 -0.2337352
-0.96747416 -0.33731252 -0.25147399
-0.95731294 -0.2551015 -0.26286954
-0.93243605 -0.32473141 -0.28256264
-8.2008076 -2.1712933 2.5661314
-5.6725383 -1.9698033 1.6822249
-9.5303144 -2.5268614 2.5737498
-5.6632924 -1.9632704 1.4379113
-1.6420828 -0.43538079 0.37630847
-5.6766295 -1.964565 1.2068533
-1.6058488 -0.4260737 0.30402699
-1.7099354 -0.5907712 0.29495689
-2.1741376 -0.5768556 0.32694393
-2.0633819 -0.71207845 0.27459025
-2.2496216 -0.5964632 0.25242031
-5.6783214 -1.9573857 0.53498435
-19.777351 -5.2400599 1.4629848
-5.6832356 -1.9568603 0.3160592
-13.957515 -3.6902592 0.50667793
-5.6696148 -1.9488504 0.097320177
-13.92033 -3.6778288 -0.020103395
-5.6865597 -1.9535652 -0.12175005
-3.3218663 -0.87641513 -0.13017847
-5.6785975 -1.9475063 -0.34194154
-3.315371 -0.87346381 -0.2553834
-3.395436 -1.1638212 -0.33550191
-3.2843654 -0.86345631 -0.37851861
-3.2627885 -1.1170824 -0.45035887
-1.5806136 -0.41436216 -0.24304046
-1.559141 -0.53349978 -0.27694508
-1.0708737 -0.27993363 -0.20674288
-1.0823559 -0.37014461 -0.23605704
-1.0138874 -0.26428095 -0.23593196
-0.96217376 -0.32885709 -0.24956708
-0.95137638 -0.24727757 -0.26081789
-0.94350946 -0.32211015 -0.28531396
-8.2278767 -2.1245224 2.5704741
-5.7036614 -1.9414763 1.6878899
-9.5756159 -2.4760883 2.5818322
-5.6798353 -1.9300483 1.4390775
-1.6371614 -0.42334157 0.3745783
-5.6922908 -1.9309567 1.2076411
-1.6141466 -0.4176909 0.305107
-1.7032452 -0.57678592 0.29318684
-2.2236223 -0.57540429 0.33384818
-2.1062469 -0.71243876 0.27970764
-2.3591154 -0.61002636 0.26428115
-5.6930561 -1.9234638 0.53525054
-19.788851 -5.1133695 1.4614869
-5.7225757 -1.9312119 0.31758201
-13.869573 -3.5761027 0.50267947
-5.7089443 -1.9232827 0.097790867
-13.885501 -3.5776253 -0.020021016
-5.6226373 -1.8931142 -0.12013049
-3.4007316 -0.87493902 -0.13305618
-5.6790838 -1.9088094 -0.34125912
-3.2965212 -0.84690112 -0.25352633
-3.4053447 -1.1439165 -0.33578113
-3.3069308 -0.8477298 -0.38051257
-3.2216375 -1.0809546 -0.44375497
-1.2668844 -0.32382271 -0.19449121
-2.0149252 -0.67567575 -0.35716137
-1.0659034 -0.27165824 -0.20545763
-1.0753207 -0.36038432 -0.23403601
-1.0050893 -0.25541189 -0.23351555
-0.96601528 -0.32356402 -0.25004381
-0.9894166 -0.25069395 -0.27081972
-0.93088037 -0.31143433 -0.28091183
-16.357134 -4.1166906 5.1021509
-5.8269076 -1.9436148 1.7208006
-8.7218237 -2.1983075 2.3479466
-5.9037709 -1.9658189 1.492731
-1.6368879 -0.41257229 0.3739295
-5.9049892 -1.9627904 1.2501873
-1.6109564 -0.40633538 0.30402699
-1.6814599 -0.55793184 0.28884211
-2.2415044 -0.56538004 0.33600575
-2.1463671 -0.7113629 0.28445053
-2.3917346 -0.60282898 0.26751593
-5.9099445 -1.9564227 0.5545029
-19.764721 -4.9779654 1.4574217
-5.923944 -1.9587629 0.32808405
-13.854423 -3.4816775 0.50134665
-5.3826218 -1.7766478 0.092012689
-13.814083 -3.4689767 -0.019886974
-5.43191 -1.7918652 -0.11581843
-3.4079747 -0.8545422 -0.13313191
-5.536118 -1.8230274 -0.33198979
-3.324873 -0.83247113 -0.2553091
-3.4066248 -1.1211326 -0.33522272
-3.3091774 -0.82670027 -0.38018024
-3.2140796 -1.056522 -0.44181266
-0 -0 -0
-2.3076003 -0.75810069 -0.40820807
-1.0398836 -0.25824219 -0.20013298
-1.0812336 -0.35500151 -0.23484442
-1.0189482 -0.25228804 -0.23637132
-0.96982795 -0.31823614 -0.25052053
-0.99093622 -0.24461828 -0.27081972
-0.93916887 -0.30781269 -0.28283775
-8.9170895 -2.1861222 2.7772007
-5.9494758 -1.9440137 1.7534417
-8.7633381 -2.1516714 2.3555241
-5.9453053 -1.9392064 1.5001957
-1.707657 -0.41928279 0.38950089
-5.9803138 -1.9471614 1.2635815
-1.6172403 -0.39738196 0.30474699
-1.6735882 -0.54394323 0.28691116
-2.2074518 -0.54240644 0.33039606
-2.1554103 -0.69971144 0.28507462
-2.4089053 -0.591461 0.26902547
-5.9294176 -1.9225808 0.55521262
-19.75227 -4.8461399 1.4542834
-19.790289 -6.4092584 1.0938411
-13.76098 -3.3685632 0.49720794
-5.3410959 -1.7266712 0.09111999
-13.733114 -3.3592017 -0.019740365
-5.3638391 -1.7329897 -0.11413814
-3.3607333 -0.82081217 -0.13108721
-5.4246249 -1.7494926 -0.32465392
-3.3260427 -0.8111093 -0.25501198
-3.434288 -1.1069286 -0.33727014
-3.3122561 -0.80591005 -0.37995869
-3.2374916 -1.0422504 -0.44414344
-1.2726854 -0.30871806 -0.19478546
-1.3659209 -0.43946981 -0.24114607
-1.0567359 -0.25555369 -0.20307072
-1.0675416 -0.34326401 -0.23140867
-1.0195286 -0.24580249 -0.23615165
-0.97083777 -0.3119823 -0.25028217
-0.98114103 -0.23582281 -0.26774225
-0.93188578 -0.29910609 -0.28008643
-9.0280933 -2.1546981 2.8076017
-8.5301495 -2.7294455 2.5090401
-9.1518612 -2.1876142 2.4563019
-9.9087257 -3.1648386 2.4953496
-1.6731638 -0.39994454 0.38106638
-11.705006 -3.7318161 2.4682679
-1.6081681 -0.38470504 0.30258694
-1.6656082 -0.53007233 0.28498015
-2.2771471 -0.54473782 0.34032089
-2.1729007 -0.69068068 0.28682199
-2.4482653 -0.58522087 0.27301505
-19.724876 -6.2621918 1.8433449
-19.758348 -4.7192898 1.4525715
-19.782598 -6.2729163 1.0912681
-13.715282 -3.2683108 0.49482292
-5.3525429 -1.6941681 0.091136225
-13.691208 -3.2600489 -0.019651005
-5.3848567 -1.703362 -0.11436082
-3.3200138 -0.78931248 -0.12930758
-5.4219289 -1.7119664 -0.32385778
-3.3319273 -0.7909162 -0.25508627
-3.4486115 -1.0882323 -0.33801469
-3.3896711 -0.8027485 -0.38826683
-3.2599032 -1.027433 -0.44634476
-0 -0 -0
-2.1746969 -0.68498826 -0.38318193
-1.0477586 -0.24658774 -0.20105101
-1.0696278 -0.33670723 -0.23140867
-1.0352644 -0.24288461 -0.23944677
-0.97736585 -0.30747673 -0.25147399
-0.99009883 -0.23155911 -0.2697939
-0.94470996 -0.29684088 -0.28338805
-16.327578 -3.7910984 5.0703025
-8.3813334 -2.6252456 2.4604831
-9.2810307 -2.158376 2.4873688
-10.057894 -3.1446044 2.5280085
-1.6755863 -0.38967067 0.38106638
-12.112336 -3.7799659 2.5492239
-1.6124144 -0.37527621 0.30294695
-1.6575216 -0.51631999 0.2830492
-2.2891212 -0.53277415 0.34161541
-2.2102566 -0.68765128 0.29119051
-2.4721453 -0.57491666 0.2752794
-19.771492 -6.1437044 1.8441435
-19.755844 -4.5907412 1.4502892
-19.773983 -6.1369109 1.088695
-13.652326 -3.1649098 0.49184164
-19.696848 -6.1016665 0.33472884
-13.641785 -3.1599576 -0.019551871
-5.8393159 -1.8077797 -0.12377449
-3.3676322 -0.77883351 -0.13097362
-5.6479077 -1.7452819 -0.33670977
-3.3989046 -0.78481609 -0.25984034
-3.4951799 -1.0793909 -0.34192345
-3.4400516 -0.79242009 -0.39347327
-3.2225595 -0.99396747 -0.44038832
-0 -0 -0
-1.9451407 -0.59958816 -0.34207937
-1.0530849 -0.24103147 -0.20178546
-1.084777 -0.33417439 -0.2342381
-1.0433931 -0.23804675 -0.2409845
-0.98109043 -0.30204543 -0.25195071
-0.99150103 -0.22547962 -0.2697939
-0.94283772 -0.28990841 -0.28228748
-16.328123 -3.6857846 5.0633535
-8.511446 -2.6087599 2.4939337
-9.5036125 -2.1487589 2.5434406
-10.095596 -3.0885205 2.5326738
-11.196146 -2.5314393 2.5426774
-12.199063 -3.7250447 2.562618
-1.6022143 -0.36255327 0.30060691
-1.6521617 -0.50355023 0.28160095
-2.199688 -0.49775121 0.32780695
-2.2381635 -0.68129969 0.29431081
-2.5134442 -0.56828761 0.27948457
-19.784039 -6.01474 1.8418367
-19.755424 -4.4630609 1.4482207
-19.794065 -6.0102415 1.0877498
-13.618841 -3.0692165 0.48994765
-19.745398 -5.9841738 0.33492357
-13.591653 -3.0605965 -0.019452738
-6.0033975 -1.8182863 -0.12701359
-3.3918464 -0.76253909 -0.13173091
-5.9165406 -1.7885979 -0.35206386
-4.9760714 -1.1168725 -0.37988093
-3.3606763 -1.015308 -0.32814974
-3.4564869 -0.77390307 -0.39480257
-3.152653 -0.95126039 -0.43002927
-0 -0 -0
-2.2971847 -0.69269973 -0.403236
-1.0430293 -0.23200408 -0.19958214
-1.0849316 -0.32694685 -0.23383389
-1.0410243 -0.2307955 -0.24010581
-0.98571509 -0.29686007 -0.25266582
-0.97965288 -0.21647198 -0.26620349
-0.95564681 -0.28744084 -0.28558913
-16.330797 -3.5812223 5.0572734
-8.7348251 -2.6187036 2.5546296
-9.6186838 -2.1128249 2.5707188
-10.085477 -3.0178752 2.5254421
-11.29157 -2.4802885 2.5608439
-12.265841 -3.6633091 2.5718756
-1.5986444 -0.35144821 0.29952687
-1.6552204 -0.49340332 0.28160095
-2.1775713 -0.47872028 0.32406718
-2.2461057 -0.66868621 0.29481009
-2.5285361 -0.55541426 0.2807785
-19.800522 -5.8872728 1.8399736
-19.770746 -4.3391943 1.4473649
-19.811426 -5.8829889 1.0866997
-13.594461 -2.9761908 0.48840439
-14.121875 -4.1854358 0.23909666
-13.564261 -2.9670985 -0.019387111
-5.9962273 -1.7760211 -0.12662895
-8.4438047 -1.8439419 -0.32749087
-3.3442776 -0.98863637 -0.19863658
-4.9039083 -1.0691129 -0.37386405
-3.3477457 -0.98902631 -0.3262884
-3.3902767 -0.73726308 -0.38671598
-3.1146822 -0.91899025 -0.42407283
-1.2141443 -0.26314509 -0.18478136
-2.1651812 -0.63842815 -0.37937
-1.0646108 -0.22995822 -0.20343792
-1.0634316 -0.31336313 -0.22878131
-1.0433747 -0.22460887 -0.2403255
-0.98472315 -0.28998321 -0.25195071
-0.98852301 -0.21207888 -0.26825514
-0.96938288 -0.28509808 -0.28916582
-16.306591 -3.4711859 5.0430861
-8.7396402 -2.5618081 2.5513923
-19.006485 -4.0528483 5.0729895
-10.070207 -2.946106 2.5170445
-11.296073 -2.4087183 2.558465
-1.6215346 -0.47346914 0.33938438
-1.5921128 -0.33978474 0.29790685
-1.6506362 -0.48102868 0.28031364
-1.6007516 -0.3416284 0.23790817
-2.255882 -0.65655529 0.29555896
-2.3831332 -0.50816745 0.26428115
-19.816187 -5.75983 1.8381104
-19.668226 -4.1903658 1.4379503
-19.827011 -5.7554717 1.085597
-13.478542 -2.8642612 0.48359928
-14.159775 -4.102324 0.23930764
-13.457981 -2.8574369 -0.019209785
-11.476226 -3.3226838 -0.24192102
